0.0 0.36697236557496604 0.004503654550859213
0.0 0.36089127354932976 0.008859383496771336
0.0 0.3497628346059224 0.012882528029475591
0.0 0.33659406874114306 0.01653580624833987
0.0 0.35632816630535324 0.021891502859888463
0.0 0.3500489502942203 0.025821161823483266
0.0 0.4144660466680356 0.035691681935287
0.0 0.3612520557820075 0.0355802219396305
0.0 0.3776846486008953 0.04188443877167556
0.0 0.3364505622289627 0.04149721889253429
0.0 0.3686157803791342 0.05006402356465094
0.0 0.36500613217700417 0.054143545074028486
0.0 0.3534539077005133 0.0568712153135224
0.0 0.38327300288929816 0.06650417472775717
0.0 0.34507002608835696 0.06424700067225449
0.0 0.3776023329552437 0.07510977397620938
0.0 0.3649123792784211 0.07725254331969753
0.0 0.35320417107394736 0.07931464893678687
0.0 0.37555482155134623 0.08918842979633906
0.0 0.33466078235211766 0.08382816206662604
0.0 0.352946411931371 0.09302596575564782
0.0 0.37587266566022154 0.10401797541521039
0.0 0.34671541750901924 0.10054560786800415
0.0 0.3464124015350596 0.10508305316611537
0.0 0.3269839718414885 0.10358804061649524
0.0 0.36841693407009823 0.1217085152747699
0.0 0.3621676056207397 0.1245938418981467
0.0 0.36437755322582904 0.13037637326278917
0.0 0.32338195910983836 0.12020444468605493
0.0 0.33027945078749754 0.1274028429333858
0.0 0.33797621329225047 0.13515945859846887
0.0 0.3279772340415068 0.13585261848960686
0.0 0.31893250653645006 0.13671523790118367
0.0 0.3492281266787487 0.15480218194990614
0.0 0.33548298576040275 0.1536625076760281
0.0 0.3272441241106865 0.15477494382176213
0.0 0.35138171608633595 0.1714989492685643
0.0 0.3376387858519048 0.16995308260944128
0.0 0.30534802941858175 0.15842531656963457
0.0 0.31837357642975617 0.17017422199418517
0.0 0.31275702362776014 0.1721396066322468
0.0 0.3114911428169187 0.1764575528182627
0.0 0.3248537939017166 0.18933043228086982
0.0 0.3070668423800974 0.1840487824211734
0.0 0.2843526344971586 0.17521295401460865
0.0 0.2982333085331466 0.1888541598201453
0.0 0.29421687164974814 0.1914090709361383
0.0 0.30265493887812644 0.20222756481913517
0.0 0.3092209885443845 0.21214942904385492
0.0 0.3155877378765113 0.2222619618872883
0.0 0.2869018481814185 0.20737244153957937
0.0 0.28192584354970635 0.2090904558768441
0.0 0.29445965470528696 0.22403908531960046
0.0 0.27907463537981864 0.2177919830655419
0.0 0.2693543438573726 0.2155765234091233
0.0 0.3092041813450948 0.2537573136654582
0.0 0.27699055015533014 0.23306701852610454
0.0 0.25366496357967233 0.21881290238951523
0.0 0.2824244207353442 0.24973074815149476
0.0 0.26748335625314024 0.24243278269977367
0.0 0.27621066042049963 0.2565865761688858
0.0 0.2534864790330134 0.2413391906579734
0.0 0.27054625195728343 0.26398622227659174
0.0 0.2701147904132612 0.2701147904132612
0.0 0.26398622227659174 0.27054625195728343
0.0 0.25375092046324066 0.26652292652613985
0.0 0.246377561201954 0.2652208463454135
0.0 0.25116304911278486 0.2771157208827547
0.0 0.22787102749101912 0.25770291971606996
0.0 0.25865644580969566 0.2998547032165679
0.0 0.23177935544032494 0.2754602156240852
0.0 0.21252175019482122 0.2589585018765168
0.0 0.21245222596841137 0.26545065771451215
0.0 0.23686416237354133 0.3035133746362434
0.0 0.20769028720168367 0.27297205828084703
0.0 0.21564314822626088 0.2907611263959935
0.0 0.2507214829913558 0.34687568085211057
0.0 0.2095941816760957 0.29760087198717644
0.0 0.2268584561242289 0.33066031041679517
0.0 0.30223020676266366 0.4523194690925846
0.0 0.19577167084351463 0.3009226692941869
0.0 0.20543908603664535 0.3244237690558875
0.0 0.19095064449496266 0.30989329029031654
0.0 0.18816160437471913 0.3139286712600996
0.0 0.20745781409499567 0.3559568167220937
0.0 0.18976580400846688 0.33498349157685386
0.0 0.17406834172056335 0.3162613040045418
0.0 0.16640304809957715 0.31131820631496937
0.0 0.18283386825042128 0.35239292929993304
0.0 0.17354997324667815 0.3447845802614689
0.0 0.15263845101140766 0.31273871406149595
0.0 0.15563005400862273 0.3290521026969334
0.0 0.14741606427456352 0.3218454660140449
0.0 0.1434554251577664 0.32363025351904984
0.0 0.13632124586112263 0.31801339268476
0.0 0.13355651789541637 0.32243395684643905
0.0 0.15038346355049423 0.3760449625916523
0.0 0.1328012684814107 0.3442743427700186
0.0 0.12961174905278963 0.34869011243147785
0.0 0.11959589795423811 0.3342481431399724
0.0 0.12101542868436183 0.35176592504155396
0.0 0.1151211987263932 0.3484768422776444
0.0 0.11264821909607212 0.35558315305211424
0.0 0.10682476122964213 0.35215404354945284
0.0 0.10249524569369953 0.3534384311449282
0.0 0.10001728405308691 0.3614160246732899
0.0 0.08563486162711692 0.32490409427107025
0.0 0.0850430629661424 0.3395109386180904
0.0 0.08433620952244493 0.35512308255502945
0.0 0.08632588862180668 0.3844266392351802
0.0 0.07124631341012318 0.3365411755275519
0.0 0.06652579980749977 0.3344477806175016
0.0 0.06516220011203022 0.349985553525513
0.0 0.05932377539982449 0.3418913419089626
0.0 0.05973066189353188 0.3712253332273548
0.0 0.05619777171640355 0.37885460331651116
0.0 0.048314474354058314 0.355734046118573
0.0 0.04406784307171786 0.35729263245553555
0.0 0.04199466097896949 0.3786785555708977
0.0 0.035482204799300913 0.36025687105533527
0.0 0.02977166738352064 0.345720476427424
0.0 0.026703936586679286 0.36201643577436454
0.0 0.020787729606448733 0.3383620402731506
0.0 0.018498513221436634 0.37654588698935
0.0 0.013508250819478668 0.3667513151439243
0.0 0.008589429983019292 0.3498945865436715
0.0 0.004687727625145019 0.3819712361025532
0.0 2.1615016004950786e-17 0.353
0.0 -0.004479111474287736 0.36497251617128773
0.0 -0.009693785266550384 0.3948810333850007
0.0 -0.013508250819478703 0.3667513151439243
0.0 -0.016879279968631797 0.34358563693457933
0.0 -0.021523578442075194 0.3503394576279524
0.0 -0.025526903569084564 0.34605978846750546
0.0 -0.03114442438103163 0.3616614782223484
0.0 -0.03528617051864183 0.3582665016019909
0.0 -0.04023110566226732 0.36277604405086
0.0 -0.043945432396518595 0.35630015292093686
0.0 -0.047237828686001265 0.34780682503515076
0.0 -0.04915470894254615 0.33137413083820166
0.0 -0.056394640883520836 0.3504920034460397
0.0 -0.06376878450759237 0.3675085606110751
0.0 -0.06589435966385074 0.3539179754752379
0.0 -0.07354905140008033 0.3697560507120179
0.0 -0.0832587732292718 0.3932835830292903
0.0 -0.08238206629898306 0.3668640008944868
0.0 -0.08110139600651557 0.34150192322415157
0.0 -0.09476227016227291 0.37831218874587214
0.0 -0.10118166686299226 0.38388965900480626
0.0 -0.10081742232551155 0.3643073528706763
0.0 -0.10667304103447528 0.36784488893616174
0.0 -0.10624419187513325 0.3502401628779884
0.0 -0.11808432618381817 0.3727426617784898
0.0 -0.12453165093835988 0.37696268769543556
0.0 -0.120039497807875 0.3489291030654124
0.0 -0.12464924575512139 0.34837130411771766
0.0 -0.11881076996505721 0.3196326030621881
0.0 -0.1399991692121104 0.36293419874671345
0.0 -0.1336741898226615 0.3342621889703576
0.0 -0.13202578416595598 0.31873843871639396
0.0 -0.14971697522319824 0.34926326364222193
0.0 -0.1398082533317215 0.31540236571771807
0.0 -0.15366250767602804 0.3354829857604028
0.0 -0.15135450307431977 0.320012209765699
0.0 -0.16755140312171762 0.34329364589509037
0.0 -0.1690538599501321 0.3358523372495137
0.0 -0.17730740371892242 0.34174125385509874
0.0 -0.17111701546783717 0.3201374189584529
0.0 -0.184676384706304 0.3355348460768407
0.0 -0.1789220437794116 0.31584157777246225
0.0 -0.1903375090483212 0.3265817396139598
0.0 -0.18764750163052585 0.3130709426500993
0.0 -0.18465556830282098 0.29967702797305334
0.0 -0.20597408365653236 0.3252686226211373
0.0 -0.2039515456698454 0.3134960398775094
0.0 -0.20278313505215484 0.30348640849042896
0.0 -0.19574320653113017 0.28530789876361873
0.0 -0.20786675710184216 0.2951481175477217
0.0 -0.2261179729781854 0.3128364785255016
0.0 -0.21385605031278357 0.28835150380155156
0.0 -0.24583748281015613 0.3231097832712067
0.0 -0.22763568851483187 0.29168817822184434
0.0 -0.2143268044328385 0.26779286940022845
0.0 -0.22711279573058504 0.2767377423038599
0.0 -0.24014916549789214 0.28540739007717725
0.0 -0.25343106306606544 0.293797032444516
0.0 -0.2265461959358388 0.25620464692702305
0.0 -0.2437759006094677 0.2689652585038501
0.0 -0.24433575820856762 0.2630228835303962
0.0 -0.25995678536587424 0.27304115027270304
0.0 -0.2437333110437315 0.24979005802405274
0.0 -0.2934493141924172 0.29344931419241727
0.0 -0.23762263399422778 0.231860914803779
0.0 -0.24696825528645017 0.23513332575533985
0.0 -0.29599232575565476 0.2749628031093631
0.0 -0.26229669837565545 0.2377318700158446
0.0 -0.2914140574696257 0.2576797374825768
0.0 -0.30288353860259387 0.2612691371815106
0.0 -0.2762253828897077 0.23242318698321468
0.0 -0.26900763777023246 0.22076886288894862
0.0 -0.26623139494308423 0.21307708545655374
0.0 -0.2901114853665911 0.2264052253336707
0.0 -0.2753595689946737 0.20950682032589668
0.0 -0.30361244689968375 0.22517433709813986
0.0 -0.3047319065429756 0.22025999440362104
0.0 -0.2845195149767511 0.2003812506134102
0.0 -0.30757180993881444 0.21101796542228765
0.0 -0.33425078414562326 0.22333923367388006
0.0 -0.30008444458863204 0.1952263458550926
0.0 -0.2965436014026472 0.18778416458037112
0.0 -0.31670413183515866 0.19514736195639046
0.0 -0.32765232902010394 0.1963872482818107
0.0 -0.32658173961395975 0.19033750904832122
0.0 -0.3228022737013319 0.1828652293172499
0.0 -0.3075006030625877 0.16924650399977212
0.0 -0.33160239539498143 0.1772451730465752
0.0 -0.35061765005912726 0.1819127908285049
0.0 -0.36264906628537924 0.18254219983977024
0.0 -0.34059762249800857 0.16623555440610197
0.0 -0.32091619905882235 0.15178205816775012
0.0 -0.3154812901324113 0.1445010573538801
0.0 -0.35379917545726636 0.1568283885199311
0.0 -0.3639690852692629 0.15602084786417506
0.0 -0.3483025837567551 0.14427165400163888
0.0 -0.3379762132922504 0.13515945859846892
0.0 -0.353604270758366 0.13640021884676057
0.0 -0.36931157069355447 0.1372769600182773
0.0 -0.3521374803784498 0.12599680516869022
0.0 -0.32434331260551885 0.11158143021165615
0.0 -0.3380320322911211 0.11167069958200534
0.0 -0.3574897651328227 0.11325223099471052
0.0 -0.3607665065710427 0.10943732332493232
0.0 -0.3630427363390839 0.1052804425875501
0.0 -0.34792315975215377 0.09628330544843836
0.0 -0.34617757663405707 0.09124190613841625
0.0 -0.37831218874587214 0.09476227016227298
0.0 -0.37458188159914063 0.08895737168805846
0.0 -0.3844266392351802 0.0863258886218068
0.0 -0.33751949289827154 0.07145342478631535
0.0 -0.374659977114034 0.07452450301016096
0.0 -0.3568672919375315 0.06644347932771615
0.0 -0.34583245247851835 0.060007622954865725
0.0 -0.3564158119549869 0.05734778974352399
0.0 -0.34522260197770854 0.05120893558492127
0.0 -0.3428523118580119 0.04656492514346569
0.0 -0.3860745389588982 0.047617752652495154
0.0 -0.36774557890087173 0.040782216698736794
0.0 -0.36324242523535183 0.0357762562202897
0.0 -0.36265779083453115 0.03123022169337622
0.0 -0.39991347312815473 0.029499390003466585
0.0 -0.361318756869854 0.022198106541399473
0.0 -0.39951818248206894 0.019627069730967187
0.0 -0.3727472494514544 0.013729094157126845
0.0 -0.3808852499232538 0.009350208067229596
0.0 -0.3629726667676094 0.004454568397716362
0.0 -0.372 4.555686092828154e-17
0.0 -0.36497251617128773 -0.004479111474287713
0.0 -0.3848840451980386 -0.009448372981321151
0.0 -0.34376690029839224 -0.012661684691827352
0.0 -0.3555711824090414 -0.017468092060560866
0.0 -0.3653112293214546 -0.022443389486608383
0.0 -0.42085657271840726 -0.031044245839059684
0.0 -0.3825840430781868 -0.03294616794026493
0.0 -0.3522953932419577 -0.03469806767666445
0.0 -0.3528369743508364 -0.039128883589328464
0.0 -0.35332271431714074 -0.04357820037092093
0.0 -0.3309614802328785 -0.04494995664138011
0.0 -0.36203860264710985 -0.05370335365066234
0.0 -0.4413237339165627 -0.07100959007023597
0.0 -0.37342022646540873 -0.06479455584015406
0.0 -0.34801934255065053 -0.06479612033611994
0.0 -0.35406348622556616 -0.07042760624782234
0.0 -0.35904247505410336 -0.07600987506254422
0.0 -0.36100978811425555 -0.08106745885804183
0.0 -0.42322887920941865 -0.10051027710209191
0.0 -0.3928626575437903 -0.09840697286082184
0.0 -0.3374747883946534 -0.08894811520197554
0.0 -0.37683644172601705 -0.10428468817268523
0.0 -0.3563197227031749 -0.10333080476185462
0.0 -0.3636373275782394 -0.1103081773566956
0.0 -0.35272323493105173 -0.11174220124811443
0.0 -0.3912056104043311 -0.1292368770443433
0.0 -0.3347449931847045 -0.1151598434254411
0.0 -0.3803838023339404 -0.1361035007704569
0.0 -0.3590008415625162 -0.13344435453553344
0.0 -0.33960937877584496 -0.13100179329873565
0.0 -0.35840334706266125 -0.14332843686540925
0.0 -0.32612947497648426 -0.13508725162487664
0.0 -0.34191035282870147 -0.14656503890270983
0.0 -0.35654180472437697 -0.158044112461946
0.0 -0.3463930015574891 -0.15865966239719967
0.0 -0.3308600812831802 -0.1564851641954833
0.0 -0.34419232036078434 -0.16799001936025612
0.0 -0.34657102886386 -0.17444919590598737
0.0 -0.3168873444838189 -0.1644123198120917
0.0 -0.35100466321064533 -0.18761590125674707
0.0 -0.31450916381615096 -0.17310397417640505
0.0 -0.30453044688804903 -0.17251436728042438
0.0 -0.32744571247008136 -0.1908410474320469
0.0 -0.32250595736010235 -0.1933026318166513
0.0 -0.3167041318351587 -0.19514736195639037
0.0 -0.29654360140264724 -0.18778416458037103
0.0 -0.34953970221636743 -0.22740052017199344
0.0 -0.3242731487979926 -0.2166723908776449
0.0 -0.3092209885443845 -0.21214942904385495
0.0 -0.28370193016359957 -0.19980544242199233
0.0 -0.36146391042065734 -0.26126584442557177
0.0 -0.2706809381089773 -0.20075066561395
0.0 -0.28809295946841584 -0.2191949969883658
0.0 -0.3019366817809902 -0.23563369919238003
0.0 -0.27872319060023776 -0.2230748372668319
0.0 -0.29065193046438914 -0.23853187484553062
0.0 -0.28234672101468733 -0.2375738393263331
0.0 -0.270323558202815 -0.23318270493449833
0.0 -0.28392269352439103 -0.2510555797066751
0.0 -0.28230237876023945 -0.255863961796714
0.0 -0.2996555971140168 -0.2783658080983403
0.0 -0.27521389152155745 -0.2620254070000854
0.0 -0.2719777136078511 -0.2653829747754097
0.0 -0.26162950903902266 -0.26162950903902255
0.0 -0.25001869728841236 -0.25623163545160704
0.0 -0.2558195420974519 -0.26869566777499415
0.0 -0.25250297018211315 -0.27181473479046514
0.0 -0.2457905774740087 -0.2711881118799151
0.0 -0.24509383770836352 -0.27718046597368
0.0 -0.25669692728083443 -0.2975830766770483
0.0 -0.23628617624055348 -0.2808163864834424
0.0 -0.22203764945727608 -0.2705536586769578
0.0 -0.2255742752194015 -0.28184613951452603
0.0 -0.22640522533367058 -0.2901114853665912
0.0 -0.23433277302347402 -0.3079888820836379
0.0 -0.2126646517037986 -0.28674508873859034
0.0 -0.22670377083564194 -0.31364693572375413
0.0 -0.1969264014649031 -0.2796140060978417
0.0 -0.20818930636836977 -0.30344886342488925
0.0 -0.21222782901348802 -0.3176213918995723
0.0 -0.2132220704730203 -0.3277458598719416
0.0 -0.192599143159355 -0.30414728348989456
0.0 -0.20773751434067383 -0.3371366564696849
0.0 -0.1871333988863327 -0.312213214040099
0.0 -0.1767419726877268 -0.303254472498677
0.0 -0.1749788582415734 -0.3088808818435925
0.0 -0.16587121759521817 -0.3013681124032199
0.0 -0.16970282525735922 -0.3174916551654078
0.0 -0.16487285852304986 -0.3177749841042217
0.0 -0.16590658064254996 -0.3295997671411451
0.0 -0.1600949270665626 -0.3280161799782932
0.0 -0.1509269479808897 -0.3191082204725754
0.0 -0.1445010573538801 -0.3154812901324113
0.0 -0.15277597537988105 -0.3446570779002311
0.0 -0.14932298318313728 -0.34834414979053185
0.0 -0.1381487190837973 -0.33352051123657456
0.0 -0.13033233507709505 -0.32590563424609864
0.0 -0.14827675505241505 -0.38439303311991246
0.0 -0.11950760732555615 -0.3215072810860132
0.0 -0.13307149208992686 -0.3719099057472932
0.0 -0.11808763605490158 -0.34325545911312916
0.0 -0.11982642483237653 -0.36271976498653996
0.0 -0.11385624289334915 -0.359396377213531
0.0 -0.10682476122964218 -0.35215404354945284
0.0 -0.09803893066353858 -0.33807154283427915
0.0 -0.10428468817268532 -0.376836441726017
0.0 -0.09761354762852899 -0.37035198841017836
0.0 -0.08504306296614245 -0.3395109386180904
0.0 -0.090574778446023 -0.3813924612645796
0.0 -0.09180341962572858 -0.40881919248614346
0.0 -0.07456009542919866 -0.35219425345906596
0.0 -0.0700374256037902 -0.3521019156647597
0.0 -0.06790779843135729 -0.3647321358369812
0.0 -0.058981851622304085 -0.3399207866241847
0.0 -0.05703007345685628 -0.3544412091186711
0.0 -0.053850084125117645 -0.3630277791570746
0.0 -0.04764157081152273 -0.3507795329414341
0.0 -0.04614882455010441 -0.3741647845437137
0.0 -0.040561772284149054 -0.365757764960867
0.0 -0.03450203339600528 -0.35030502378861333
0.0 -0.031830802879787325 -0.36963197911981066
0.0 -0.028028098731473265 -0.379967663994581
0.0 -0.02244338948660849 -0.3653112293214546
0.0 -0.018694783918746266 -0.38054106881417066
0.0 -0.01372909415712703 -0.3727472494514544
0.0 -0.009178419467569233 -0.37388735819238034
0.0 -0.00455274070400198 -0.3709720643823226
0.0 -6.723310927318969e-17 -0.366
0.0 0.0046018268571450536 -0.3749717631896792
0.0 0.008957548410862888 -0.36489006882411457
0.0 0.01314017859006515 -0.35675809129804076
0.0 0.01977427275394932 -0.4025145688506845
0.0 0.023301879794839275 -0.37928488290205664
0.0 0.026924630277478115 -0.3650083071444006
0.0 0.033804141063709305 -0.39254716920001453
0.0 0.036364359062266795 -0.36921353359538506
0.0 0.040231105662267265 -0.36277604405086
0.0 0.04406784307171793 -0.35729263245553555
0.0 0.05060234639867937 -0.3725793909208453
0.0 0.056344502190858986 -0.3798437798264758
0.0 0.05925408746353022 -0.36826342897288117
0.0 0.06718802228279842 -0.38721411345885387
0.0 0.07101947652659454 -0.38144492912331196
0.0 0.0764754062303223 -0.38446782991806633
0.0 0.08677966662453938 -0.409914978331524
0.0 0.08501128118086547 -0.3785724264549491
0.0 0.08318091898104173 -0.3502583827940016
0.0 0.08844478548478801 -0.353091376162814
0.0 0.09328083141525244 -0.3539133884024159
0.0 0.09868372026571234 -0.3565971443443128
0.0 0.09803893066353875 -0.33807154283427915
0.0 0.12104871041511067 -0.3990441200003311
0.0 0.11204420719743363 -0.35367654097140594
0.0 0.11543488046679194 -0.34942637045823755
0.0 0.11971418751571275 -0.34798349574003185
0.0 0.12801814428904346 -0.35778674476954797
0.0 0.12752123697129303 -0.34306607836000247
0.0 0.12704294789685092 -0.3293464579886628
0.0 0.13107496946499858 -0.3277626464070451
0.0 0.13585261848960695 -0.32797723404150675
0.0 0.14341310258222142 -0.3345574420151811
0.0 0.1385925293897066 -0.31265973645060746
0.0 0.15282964855583273 -0.3336646497942218
0.0 0.153064723448041 -0.3236281669381927
0.0 0.1627266244977936 -0.33340822677245696
0.0 0.1632089126646222 -0.3242404213339721
0.0 0.19250518118054413 -0.37103336132839304
0.0 0.16640304809957715 -0.31131820631496937
0.0 0.17696144435303812 -0.32151772456971417
0.0 0.1813865347405605 -0.3201920127280058
0.0 0.17321720400164695 -0.2972066625058258
0.0 0.19535904279342417 -0.32593687180010344
0.0 0.18570474766817804 -0.30137973835926385
0.0 0.20115910507754844 -0.31766494053388994
0.0 0.19849829578562492 -0.305113792821961
0.0 0.19833857318799786 -0.2968346515920088
0.0 0.21950394258404188 -0.3199406494805898
0.0 0.2009570588048279 -0.2853370997899028
0.0 0.21850260083125164 -0.3023005349482179
0.0 0.20789905726785932 -0.28031942848674496
0.0 0.2246445963610047 -0.29525549160989584
0.0 0.24670786782283144 -0.31612691747826904
0.0 0.21682624238540799 -0.27091581831451683
0.0 0.23409112185638523 -0.2852408572908499
0.0 0.22276571383986774 -0.26474787390537086
0.0 0.2331827049344983 -0.270323558202815
0.0 0.2371448483772814 -0.2681908292393985
0.0 0.24310434165462064 -0.26822430737849523
0.0 0.24841936419534022 -0.26741880916043076
0.0 0.2702998935369302 -0.2839048565169751
0.0 0.2458284397919585 -0.2519372504999041
0.0 0.2573868683519032 -0.25738686835190333
0.0 0.2734091752584188 -0.2667797272742276
0.0 0.26797142069204266 -0.25513000155271487
0.0 0.2644881920737411 -0.24569696020415852
0.0 0.2986033035180484 -0.2706382588033486
0.0 0.26444514726678114 -0.23383276948933066
0.0 0.2725951847423343 -0.23514222346335975
0.0 0.2846422228115547 -0.23950533395500245
0.0 0.2867868781975755 -0.23535990842471238
0.0 0.2935571979431075 -0.2349471675415373
0.0 0.28853479251133796 -0.22517476215250934
0.0 0.2857054487545891 -0.2173784638641529
0.0 0.3317247105015064 -0.24602381275537494
0.0 0.3095946497324911 -0.22377478154835972
0.0 0.3033239656792376 -0.21362483901602058
0.0 0.3116947564527395 -0.21384662447620592
0.0 0.2860255466320756 -0.19111616015874316
0.0 0.3310987586941609 -0.21540337042670848
0.0 0.29485389427214775 -0.18671416934059695
0.0 0.29882567277994815 -0.1841309786201425
0.0 0.31650185709010037 -0.18970391260729885
0.0 0.30498241821092015 -0.17774904945517825
0.0 0.3149714907813535 -0.1784291455871819
0.0 0.33378270588845 -0.18371201716214572
0.0 0.3183735764297561 -0.17017422199418525
0.0 0.3239884614470417 -0.16809662949975757
0.0 0.3135217297196258 -0.15781357670876706
0.0 0.3028532949388625 -0.14781367238748383
0.0 0.3290521026969333 -0.15563005400862284
0.0 0.3373013217265838 -0.15449536679622344
0.0 0.34922812667874875 -0.15480218194990603
0.0 0.3777557930446137 -0.16193072846509082
0.0 0.338139908899131 -0.14006213624562278
0.0 0.36490288962597367 -0.14592765722307227
0.0 0.3349444147816713 -0.1292023181160607
0.0 0.34212873934808985 -0.12717281829104374
0.0 0.3464882159873517 -0.12397546604833695
0.0 0.357439568993837 -0.12296729043733555
0.0 0.33898156047171407 -0.11198438132240428
0.0 0.3403302564064471 -0.1078161239069646
0.0 0.34928322254225624 -0.10595390719787881
0.0 0.3467154175090193 -0.10054560786800407
0.0 0.3614160246732899 -0.10001728405308696
0.0 0.3616492001707747 -0.09531975669208839
0.0 0.3550314386692031 -0.08893074584459468
0.0 0.37360894164693514 -0.08872631357977767
0.0 0.34442285190360056 -0.07734273777537518
0.0 0.3570858403126641 -0.07559565231015976
0.0 0.3756407623944372 -0.0747195933321773
0.0 0.3961915114347802 -0.07376507484592183
0.0 0.3527293959752409 -0.06120435617618804
0.0 0.3534539077005133 -0.05687121531352245
0.0 0.36500613217700417 -0.054143545074028396
0.0 0.34780682503515076 -0.04723782868600137
0.0 0.3612625505939304 -0.04455748577251463
0.0 0.4055140437609613 -0.04497066057590441
0.0 0.374189457228746 -0.03685444476391475
0.0 0.37859879262945567 -0.0326029786908873
0.0 0.39392973038808266 -0.02905800262186863
0.0 0.3513375757408525 -0.021584899178377588
0.0 0.36755672788350346 -0.018056904152489856
0.0 0.3607553808363942 -0.01328740748183042
0.0 0.3708882617362918 -0.009104795782000519
0.0 0.38297116080439236 -0.004699999163430639
0.0 0.364 -8.915428697792731e-17
1.0 0.3709720643823226 0.004552740704002092
1.0 0.34289669481279805 0.008417641383358914
1.0 0.3737465718360427 0.013765901380068201
1.0 0.3655591369710931 0.01795876880383499
1.0 0.3832773553536573 0.023547162740048096
1.0 0.3590245644043285 0.026483242895880273
1.0 0.372620916956359 0.03208819481682052
1.0 0.3960835212155344 0.03901082185116512
1.0 0.3538308813208388 0.03923910579662237
1.0 0.3692023868707201 0.045536771174108426
1.0 0.35177043557686194 0.0477761515200298
1.0 0.36203860264710985 0.0537033536506624
1.0 0.3662888261365655 0.058936371176862595
1.0 0.3586410618295746 0.06223012750874965
1.0 0.3843942455856056 0.07156859619046013
1.0 0.34621720398234035 0.06886688367169327
1.0 0.36197742716626224 0.07663120919112087
1.0 0.37759672432491054 0.0847921799407086
1.0 0.347339562937385 0.0824877446561996
1.0 0.33175068859253404 0.08309922152691623
1.0 0.3423096707498776 0.09022244349999817
1.0 0.3537058161469264 0.09788358199328771
1.0 0.32750680712070795 0.09497521408030309
1.0 0.3368429981777375 0.10218020639357074
1.0 0.35272323493105173 0.1117422012481144
1.0 0.3275872223045977 0.10822020043761758
1.0 0.4066111499136242 0.13988342562977304
1.0 0.3380143194007045 0.120943457367807
1.0 0.3393167223123521 0.1261275622502953
1.0 0.3582692347525397 0.13819969402943544
1.0 0.3509752984188755 0.1403578993137946
1.0 0.3141190410538375 0.13011236700413054
1.0 0.34007212512532137 0.1457770548225878
1.0 0.33277235107608516 0.1475078382978163
1.0 0.34366549760821746 0.15741037371690683
1.0 0.37967550311184617 0.1795731392407185
1.0 0.31273871406149595 0.15263845101140763
1.0 0.31888107552679895 0.16051124468669456
1.0 0.3213255425858331 0.16671501336688288
1.0 0.3174916551654078 0.16970282525735914
1.0 0.3241459348523005 0.1784079956692754
1.0 0.32280227370133197 0.18286522931724988
1.0 0.33435749531905407 0.19486935450185272
1.0 0.3285100576301042 0.19690135102600392
1.0 0.29201483123510596 0.17993426115871486
1.0 0.3066818441856437 0.19420413601901626
1.0 0.30427556811640627 0.1979529707972029
1.0 0.2926773035304959 0.19556072202289998
1.0 0.28118495224969364 0.19291454747721207
1.0 0.2861546846030543 0.20153286699624587
1.0 0.3063528209394808 0.22143159011853392
1.0 0.2987932017107999 0.2216001412711852
1.0 0.300826349942158 0.22888317365083505
1.0 0.2830163675179516 0.220868141018445
1.0 0.29277646071453545 0.23432230805339488
1.0 0.2844678468374872 0.23345672857222155
1.0 0.26321753937412584 0.22147805075408827
1.0 0.2778956466678798 0.23971443336403606
1.0 0.31014246733271217 0.2742401319223311
1.0 0.2660014540024303 0.24108966479007962
1.0 0.27621066042049963 0.2565865761688858
1.0 0.28245636235107213 0.2689208124474561
1.0 0.27841929103540547 0.2716683610200904
1.0 0.24324473272817235 0.24324473272817235
1.0 0.26677972727422766 0.2734091752584188
1.0 0.2606463259106113 0.2737653973556545
1.0 0.2525029701821131 0.27181473479046514
1.0 0.25452084388701995 0.2808204765095295
1.0 0.23582001682210116 0.2666925564503515
1.0 0.24363347042175879 0.28243889974691877
1.0 0.24079299704078203 0.28617255734279967
1.0 0.21950007632062132 0.26746161686350695
1.0 0.24556977883995781 0.30682973082883314
1.0 0.2153310567032194 0.2759212496693122
1.0 0.2300941957336437 0.3024180237513757
1.0 0.21385605031278357 0.28835150380155156
1.0 0.220259994403621 0.30473190654297566
1.0 0.20671514071900648 0.2935129479214186
1.0 0.21950394258404193 0.3199406494805898
1.0 0.201116424353096 0.30099199965352136
1.0 0.19304504590140442 0.2967315457664127
1.0 0.20490408841675825 0.3235789154906378
1.0 0.18780310639889186 0.30478515913168497
1.0 0.18610519339794623 0.3104977568200985
1.0 0.18832335551341836 0.3231258481894734
1.0 0.18730131304731795 0.33063305662131026
1.0 0.1692465039997721 0.30750060306258775
1.0 0.17677377630974908 0.33072047413063316
1.0 0.17454417145317297 0.3364154161326816
1.0 0.1834414224990795 0.36443551488777026
1.0 0.17851680908518078 0.3657605075374392
1.0 0.18641402073560304 0.3941393318018213
1.0 0.15782680327700446 0.34457466559130795
1.0 0.15763887114794103 0.35562759496867347
1.0 0.16271871254521286 0.37959402074799387
1.0 0.15383873981076612 0.3713995720695373
1.0 0.1748903983513155 0.43732636390288454
1.0 0.16483192673302463 0.4273107018663104
1.0 0.19372078621868558 0.5211604906233916
1.0 0.1802360715648377 0.5037260748729161
1.0 0.14736556234950512 0.42836011839737614
1.0 0.3312479178612295 1.0027017587062468
1.0 0.2237864084455481 0.7063997759024576
1.0 0.20465069746439593 0.6746429366912073
1.0 0.1632125379796411 0.5628122843775215
1.0 0.12748869807300145 0.4606849594502202
1.0 0.11621874077965867 0.44094127079645257
1.0 0.12562075300998748 0.5015061579015793
1.0 0.1085973108919154 0.45728177753661325
1.0 0.09377533078714026 0.41760051165649026
1.0 0.09589256717699719 0.4529609426431876
1.0 0.11802964481975764 0.5933750946439544
1.0 0.09280122319325652 0.49843448212762664
1.0 0.07778765938593701 0.44830132728696825
1.0 0.07974678795359841 0.49562531191524495
1.0 0.09405423412588688 0.6340621428874247
1.0 0.07428855109593367 0.5469782547561346
1.0 0.05900194544602225 0.47837513567657824
1.0 0.05500088143964771 0.4959595780311757
1.0 0.0534193414796105 0.5423756760363473
1.0 0.03594907387232031 0.417454984504584
1.0 0.0409018973614151 0.5544934939133517
1.0 0.030169802260686655 0.49107411154687336
1.0 0.021835115075701066 0.4444639780113017
1.0 0.016121563648315143 0.4377032044496971
1.0 0.014724737113747357 0.5998192912177226
1.0 0.005927152992002733 0.4829636309883068
1.0 3.845390949322689e-17 0.628
1.0 -0.007105220667431777 0.5789564023648647
1.0 -0.012295155489979094 0.5008491081667983
1.0 -0.018514033139503512 0.5026591594479398
1.0 -0.023159942282541302 0.47143145532884134
1.0 -0.03286791465798378 0.53499130851448
1.0 -0.031264939529858614 0.42384844408844335
1.0 -0.047274319101786304 0.5489682493127107
1.0 -0.05763407851378166 0.5851686192832518
1.0 -0.05775643662199472 0.5208072522812346
1.0 -0.06757069270996732 0.5478487030984879
1.0 -0.06258002945581365 0.46076972547391776
1.0 -0.13601914982012026 0.916966624737352
1.0 -0.08816626955029314 0.5479522870776113
1.0 -0.09351615315188477 0.5389468703867509
1.0 -0.12263672492994442 0.6586806765789149
1.0 -0.11256711580330597 0.5659131067926639
1.0 -0.12302415745817775 0.5811205182074589
1.0 -0.1286124279720826 0.5727371503326162
1.0 -0.15896797849710173 0.6693826871174253
1.0 -0.1190602881525993 0.47531531406532657
1.0 -0.13507879959039268 0.5124975296537716
1.0 -0.13282295322249937 0.479960480766129
1.0 -0.12951165556404962 0.44660019152823816
1.0 -0.15007717814055707 0.494738153573552
1.0 -0.14888893301437944 0.4699798778946176
1.0 -0.24153494010714638 0.7311366990566383
1.0 -0.2644772675279197 0.7687787555343639
1.0 -0.1600226803613045 0.44723343096193485
1.0 -0.1850103192124498 0.49772701532557734
1.0 -0.20729954104415318 0.5374038521288096
1.0 -0.21016553177674002 0.52553444154784
1.0 -0.20588368661241827 0.49704718849107227
1.0 -0.30219189472682384 0.7049603242462743
1.0 -0.27759030009341806 0.6262336826569184
1.0 -0.1982204706064752 0.4327639599510887
1.0 -0.19881311844508107 0.4203550213024012
1.0 -0.2245715141317262 0.46012132643530435
1.0 -0.19917781903699078 0.3956983654296133
1.0 -0.20540026508737505 0.39588727069967283
1.0 -0.21731389567678494 0.4065657028645917
1.0 -0.2608614206948054 0.473953920959715
1.0 -0.2681366165730025 0.4733273231631391
1.0 -0.2749319575142417 0.4717291794423864
1.0 -0.2699039407014413 0.45030752025014287
1.0 -0.28275383896369466 0.45888044908373793
1.0 -0.253588871826484 0.40046058992836125
1.0 -0.24376026982465482 0.37468644338301255
1.0 -0.3033413472287028 0.45398240831718967
1.0 -0.3037979823908003 0.44280445559555853
1.0 -0.27753954826340144 0.39407587993906334
1.0 -0.2759107908619827 0.38172534037697214
1.0 -0.32465612094837615 0.4377481046569515
1.0 -0.31426023048884494 0.41303935349201054
1.0 -0.3389926064099253 0.4343788816222601
1.0 -0.35554504875301773 0.44423948305752187
1.0 -0.33305647418591383 0.405830488015437
1.0 -0.3766414525905279 0.4476228503891385
1.0 -0.42521552076290875 0.4929429590757214
1.0 -0.36432867767459454 0.41202501698790256
1.0 -0.34450974383652044 0.380107927307094
1.0 -0.35595432184702197 0.3831781840846719
1.0 -0.3433911912790593 0.3606750473098305
1.0 -0.3442994909586236 0.3528552968649227
1.0 -0.30900566337852126 0.30900566337852126
1.0 -0.32565752550413746 0.31776119348108267
1.0 -0.36719327105639366 0.349597056181693
1.0 -0.37292102428125806 0.34642590787788574
1.0 -0.3178680327772773 0.28809879162937096
1.0 -0.4037845166481446 0.3570421041211025
1.0 -0.3604314109370867 0.3109102732459977
1.0 -0.40936448710801554 0.3444498754460384
1.0 -0.3285294426791632 0.2696171457695493
1.0 -0.36616576020031233 0.2930590999387792
1.0 -0.37840628526077097 0.2953111634787009
1.0 -0.3947351046860062 0.3003334765365455
1.0 -0.41284867118105145 0.3061894425091108
1.0 -0.4117122567123181 0.297585311587871
1.0 -0.47828711569367643 0.3368477919794396
1.0 -0.44280445559555864 0.3037979823908002
1.0 -0.4157348061512727 0.2777851165098011
1.0 -0.45012666688294806 0.29283951878263886
1.0 -0.4756525572355851 0.3012036599964357
1.0 -0.41120455826984303 0.2533768167337005
1.0 -0.41170973280013057 0.24676931721274645
1.0 -0.5028322022627635 0.29305933932836764
1.0 -0.4828982800653348 0.2735584966875302
1.0 -0.4415393274744849 0.24302062112787795
1.0 -0.4321414195306939 0.2309844010447389
1.0 -0.5405725288253379 0.2804680749735683
1.0 -0.6324028052464249 0.3183248213954614
1.0 -0.447539883915589 0.21843088679218672
1.0 -0.4321068821130059 0.2043713346596748
1.0 -0.4327639599510887 0.1982204706064753
1.0 -0.41596543884510645 0.1843847978722704
1.0 -0.5064317322812218 0.21708961407363753
1.0 -0.4379188984103499 0.18139194694105262
1.0 -0.5088213320993221 0.20348182228560704
1.0 -0.8051727853943796 0.3105894165296949
1.0 -0.4836669301468886 0.17978403900870837
1.0 -0.4114547564849801 0.1472208659324001
1.0 -0.49549823849939323 0.1704625930930257
1.0 -0.4329848503504247 0.1430388736218945
1.0 -0.5071588134684312 0.1606671650378293
1.0 -0.6124418148686136 0.18578219344285593
1.0 -0.5436036739892103 0.15764214419194011
1.0 -0.41635126042363 0.11521991122915613
1.0 -0.4602808002173496 0.12131605397174898
1.0 -0.5102364391803301 0.1278075746291169
1.0 -0.502037015338069 0.1192259838728264
1.0 -0.5746885545926932 0.12905063045239645
1.0 -0.5781855660952999 0.12240282332960108
1.0 -0.583567241839922 0.11607874159959626
1.0 -0.5731504991723991 0.10671225467784715
1.0 -0.519241317538972 0.09009691537667874
1.0 -0.6150887835123457 0.0989686232969957
1.0 -0.45996707713362317 0.06822967062174323
1.0 -0.5390510336727123 0.0732119054278767
1.0 -0.46448042219219626 0.05728819599323325
1.0 -0.47309971772112147 0.05246577067188842
1.0 -0.5234671662295756 0.051557015813349
1.0 -0.5270493718446895 0.04538677823020884
1.0 -0.45675902915884015 0.03369257012864762
1.0 -0.488079757208173 0.02998584005177995
1.0 -0.5273640008763311 0.025907732044876685
1.0 -0.528641541447237 0.01947102093597882
1.0 -0.5748268207503174 0.014111206400674588
1.0 -0.4449664923184193 0.005460834537145403
1.0 -0.561 6.870268543216652e-17
1.0 -0.4749642333735936 -0.005828980685716887
1.0 -0.4528635648693805 -0.01111717652087917
1.0 -0.4676828759873476 -0.017225780336555814
1.0 -0.6222495692158223 -0.03056916110598152
1.0 -0.4711117492888704 -0.0289433875346425
1.0 -0.4866777428592008 -0.03589950703663774
1.0 -0.5091157448253996 -0.0438424266080088
1.0 -0.591139727643285 -0.05822218135575899
1.0 -0.46912408984111204 -0.052024881842712783
1.0 -0.5141043989221318 -0.06340872975319393
1.0 -0.43500625695279543 -0.05908093103462834
1.0 -0.4075407221054898 -0.06045295547560897
1.0 -0.5203078473691914 -0.08371824153694486
1.0 -0.49953576469119326 -0.08667767760147259
1.0 -0.5239952248008383 -0.09756026028009021
1.0 -0.4747000757151635 -0.09442371585580613
1.0 -0.41676319992656136 -0.08822944625788512
1.0 -0.4868753628892258 -0.10933151883827803
1.0 -0.45825471748881885 -0.10882836900019607
1.0 -0.5500077205613064 -0.1377697620051506
1.0 -0.5415068237851173 -0.1427247693785281
1.0 -0.45201097485806135 -0.12508828325572727
1.0 -0.47445267659128953 -0.13758872655621612
1.0 -0.5167477812953928 -0.15675372571740953
1.0 -0.4347075544015124 -0.13771471288956807
1.0 -0.44248013215635507 -0.1461756910258835
1.0 -0.42836011839737614 -0.14736556234950512
1.0 -0.48112901730852364 -0.17215071508342447
1.0 -0.5980222896002229 -0.22229111799913925
1.0 -0.4888882265894032 -0.18858499914433377
1.0 -0.4744666071218132 -0.18974308610938895
1.0 -0.463787525320666 -0.192107083047275
1.0 -0.4531231288831985 -0.19423807575009663
1.0 -0.5274990290409373 -0.23382423818087905
1.0 -0.4291272880187266 -0.19655475236608463
1.0 -0.4718824110104374 -0.2231837587706073
1.0 -0.44035048819003736 -0.21492195688387858
1.0 -0.4582240665132994 -0.2306506121128132
1.0 -0.5006287459072096 -0.2597438329804474
1.0 -0.4718278764263699 -0.25219725420190875
1.0 -0.5782062621689683 -0.318241289572221
1.0 -0.5107410637808136 -0.2893312388388832
1.0 -0.43112245520467185 -0.25126565347913304
1.0 -0.406563361140129 -0.24368470074758702
1.0 -0.4759075529458433 -0.293245632617264
1.0 -0.38271866505811736 -0.24235392180885493
1.0 -0.39564206102188354 -0.257393394535206
1.0 -0.46479151327712276 -0.3105637602579577
1.0 -0.4329093839621383 -0.29700920066139697
1.0 -0.4357727054097941 -0.30690576602571157
1.0 -0.4506142022284428 -0.32570360874578
1.0 -0.36786904941813536 -0.27283028145753446
1.0 -0.519681498709601 -0.3953987100370245
1.0 -0.4887747851284959 -0.3814435861599886
1.0 -0.4169136800574985 -0.33367496666803426
1.0 -0.3385785785728788 -0.2778642584636766
1.0 -0.5241395769513844 -0.44102460687950723
1.0 -0.3861765117183071 -0.3331181499064262
1.0 -0.349097559847932 -0.30868575235702006
1.0 -0.4260468970791015 -0.3861463990370356
1.0 -0.4161476263099305 -0.3865813667478173
1.0 -0.3708145064711511 -0.35304475890537823
1.0 -0.45162615075408963 -0.44067541337706184
1.0 -0.39103004999616087 -0.39103004999616076
1.0 -0.41553386839833895 -0.425859841043872
1.0 -0.3889008672317058 -0.40847535478462726
1.0 -0.3396198978999312 -0.36559448156453395
1.0 -0.3801023684434124 -0.4193783369509069
1.0 -0.32590856257436446 -0.36857510610554206
1.0 -0.3821061131279596 -0.4429671752062933
1.0 -0.3077514775013203 -0.3657499529675354
1.0 -0.4199683541163336 -0.5117329201261317
1.0 -0.34429757796645494 -0.430186212943224
1.0 -0.29346546870695883 -0.3760412459778913
1.0 -0.3191043188200796 -0.41940604872888154
1.0 -0.27580877797999653 -0.37188508707553863
1.0 -0.28704095015365516 -0.3971240271437714
1.0 -0.2832976301775798 -0.40225172807057924
1.0 -0.36037116346916176 -0.525263385874061
1.0 -0.28834095093717355 -0.43153272878502097
1.0 -0.2884769188752628 -0.4434208692385092
1.0 -0.2648238218441131 -0.41820251479860504
1.0 -0.2717374556274471 -0.4410019900285272
1.0 -0.2529385501430651 -0.42200247612013386
1.0 -0.37815732617801373 -0.6488436149473117
1.0 -0.27158690391861107 -0.4794179321009
1.0 -0.2632723395552009 -0.47833427143069207
1.0 -0.25926820525429883 -0.48505669539159524
1.0 -0.26250706524619677 -0.5059545836296269
1.0 -0.23694517072797786 -0.47072920673003654
1.0 -0.2004476210121071 -0.4106942308221369
1.0 -0.34888495623911053 -0.7376552631887295
1.0 -0.24111271529653194 -0.5264082622094124
1.0 -0.2755640935233929 -0.6216626338784009
1.0 -0.19857198819076832 -0.4632333812517891
1.0 -0.1790958463468619 -0.4323756212152822
1.0 -0.20496709106141445 -0.512535356421215
1.0 -0.2270937680535774 -0.5887184560647203
1.0 -0.17525459616546574 -0.4714815229920251
1.0 -0.19842812364801754 -0.5545694543927993
1.0 -0.16102859462032035 -0.46807562606335795
1.0 -0.1725249572193903 -0.5222404993261701
1.0 -0.15855312339259497 -0.5004856711859517
1.0 -0.1283058273464724 -0.4229676283936363
1.0 -0.15569250636624452 -0.5368806603533013
1.0 -0.14829229315604356 -0.5358594925822646
1.0 -0.13202041167513842 -0.5008938120012334
1.0 -0.12003220887221248 -0.4791954390781047
1.0 -0.12222973928047492 -0.5146852347167413
1.0 -0.12423040316894535 -0.5532231077318456
1.0 -0.11391125690572017 -0.5380745538957953
1.0 -0.13363687058104812 -0.6718379170762128
1.0 -0.08767610633051251 -0.4709075284795526
1.0 -0.09932885736973528 -0.5724463102279748
1.0 -0.08641882997362067 -0.5370919714778749
1.0 -0.06265391259243934 -0.4223783697549615
1.0 -0.061772545204771 -0.454824309661351
1.0 -0.05532962519004561 -0.44860074963861696
1.0 -0.05566221468341107 -0.5019230198511898
1.0 -0.06116269556564572 -0.6209952694434508
1.0 -0.043241845421597876 -0.5021415565401202
1.0 -0.03538455509144 -0.47969670966245
1.0 -0.02741036912708742 -0.4461587964663667
1.0 -0.02389595739745258 -0.48641338717191895
1.0 -0.0220843337648156 -0.5995934307530096
1.0 -0.014258453771812098 -0.5808250136624947
1.0 -0.005755351456002504 -0.4689646851625588
1.0 -9.791051159183088e-17 -0.533
1.0 0.0068475183634318405 -0.5579579836262426
1.0 0.010601810721897992 -0.4318698896767602
1.0 0.017888310349500457 -0.48567067890993787
1.0 0.021638844378391187 -0.44046879618648105
1.0 0.03372640496621474 -0.548964962095082
1.0 0.03450178032824382 -0.4677292241823057
1.0 0.040753723363608926 -0.4732484907868196
1.0 0.07292475240519271 -0.7404174366441145
1.0 0.05511110364694147 -0.49695348500117803
1.0 0.061327748274807456 -0.4972322468339537
1.0 0.0667520314195345 -0.4914877071721789
1.0 0.10315152354211946 -0.695391086505241
1.0 0.0830828089636094 -0.51635864169656
1.0 0.09437096259568634 -0.5438732585986955
1.0 0.0960959411764488 -0.5161303809013886
1.0 0.1151032899895157 -0.578663315437906
1.0 0.10169168571037909 -0.48035382902333723
1.0 0.11020792379890548 -0.49077817140937985
1.0 0.10189662575177612 -0.429066518922652
1.0 0.12149008995163188 -0.485015626597272
1.0 0.14450882899575992 -0.5482756590824311
1.0 0.12908897461785074 -0.46646761584499297
1.0 0.15652806543439993 -0.539761951911548
1.0 0.13527265960057933 -0.44593419645120935
1.0 0.16006315313919092 -0.5052522013877228
1.0 0.1797396372485646 -0.5440796474798101
1.0 0.16135390491248242 -0.4690212333887386
1.0 0.1670973672825409 -0.4670058563307784
1.0 0.18535873789269916 -0.4986643543374899
1.0 0.19974174527691857 -0.5178110033532799
1.0 0.1611516621750974 -0.4029716389253755
1.0 0.17718242918503668 -0.4277562235527257
1.0 0.1729625055868 -0.4034909808919354
1.0 0.18924769364033034 -0.42693595591354877
1.0 0.20488334356803733 -0.447310647680537
1.0 0.23430019119979462 -0.49538613263164694
1.0 0.20571101587456928 -0.42147832441046446
1.0 0.2293017781238494 -0.4555443936097128
1.0 0.29981070083381395 -0.577853392882258
1.0 0.2559684280965167 -0.47888324654115677
1.0 0.2724338312247045 -0.4949796032204047
1.0 0.2449704015382026 -0.43243323458102956
1.0 0.2739248807467905 -0.4700012337301431
1.0 0.28738343400401084 -0.4794702929901522
1.0 0.22662274291709864 -0.3677854434214745
1.0 0.2669638123236614 -0.4215819290596039
1.0 0.30701796848161217 -0.4719205092273738
1.0 0.2750072653447029 -0.41157745808976
1.0 0.3360446956054662 -0.48980604585430504
1.0 0.4341593763290551 -0.6164589491162943
1.0 0.344449140184386 -0.4765488325725258
1.0 0.2793829738069513 -0.37670433226442235
1.0 0.31304920840603623 -0.41144767968279283
1.0 0.34637538549689306 -0.4438390387537792
1.0 0.3336749666680342 -0.41691368005749857
1.0 0.2880145510102951 -0.35094674582668256
1.0 0.3045323197868712 -0.3619241166394232
1.0 0.3200546930473506 -0.37103233478817743
1.0 0.33319513612785623 -0.37681560644530016
1.0 0.34518130279136744 -0.380848878432449
1.0 0.31716006497268096 -0.34141689059934455
1.0 0.40407075921592117 -0.42440879060955966
1.0 0.3743296696832095 -0.3836317223521267
1.0 0.36486709909225845 -0.3648670990922586
1.0 0.4881284228435644 -0.47629260209691937
1.0 0.3374991406553835 -0.3213258938474733
1.0 0.4315333660150512 -0.40087398770152183
1.0 0.36677080705070464 -0.33242168264927424
1.0 0.3670768333164951 -0.3245837310191842
1.0 0.4164648655785663 -0.3592450636245774
1.0 0.3734016256237599 -0.31418979293021826
1.0 0.36872598625402564 -0.3026055965460588
1.0 0.39114935151461927 -0.31305460355933556
1.0 0.3823480173989041 -0.2983873214316039
1.0 0.3971226153998328 -0.3021500096607585
1.0 0.41606150130697417 -0.3085722397270804
1.0 0.4052285991262973 -0.29289892872821954
1.0 0.37935935330233483 -0.26717500081788015
1.0 0.5029994746988653 -0.3450964045780043
1.0 0.43735301607113874 -0.2922299425683107
1.0 0.4300092739496318 -0.27975171906051005
1.0 0.3649767401878734 -0.231118971791226
1.0 0.42823166213194847 -0.2638686103872697
1.0 0.4494497916401425 -0.2693898379572483
1.0 0.5088800122556147 -0.2965841080144475
1.0 0.37761775414118076 -0.21391781542772637
1.0 0.3872229816343698 -0.21312522725897218
1.0 0.43214141953069385 -0.23098440104473897
1.0 0.45979732336867835 -0.2385590522763683
1.0 0.43946635618819346 -0.22120877419006663
1.0 0.4709054200236318 -0.22983490899418849
1.0 0.5306417150634611 -0.2509748398435758
1.0 0.5218624222939598 -0.2390305674960438
1.0 0.49367326807990664 -0.21883030956269436
1.0 0.45404224273488847 -0.19463206779015782
1.0 0.5995978165998251 -0.24836154760494314
1.0 0.4141137118910541 -0.16560746850251967
1.0 0.439439608251162 -0.16951056220797936
1.0 0.4752308790396755 -0.1766482708864635
1.0 0.43781799031010465 -0.1566537818273823
1.0 0.515355992332384 -0.17729410922843353
1.0 0.44912682942050636 -0.1483714632086757
1.0 0.5653104819300369 -0.17908952794630256
1.0 0.4239245687293685 -0.12859611202372687
1.0 0.5080677447708344 -0.14733691568469293
1.0 0.5435697011086281 -0.1504259952158428
1.0 0.5656812355612385 -0.14909641086864092
1.0 0.518966720459081 -0.12999439624824635
1.0 0.5779263316101027 -0.13724851631871857
1.0 0.5161464267903816 -0.11590455604298432
1.0 0.5459010928615522 -0.11556814791525793
1.0 0.4629306523503247 -0.09208263199161276
1.0 0.5751167101472615 -0.10707833445375749
1.0 0.5093885411150826 -0.08838729648907602
1.0 0.59929196082182 -0.096426893003654
1.0 0.4639237831734823 -0.06881659251956454
1.0 0.5915688733503847 -0.08034468297875448
1.0 0.5091420012491382 -0.06279667637719782
1.0 0.480057066511138 -0.05323732612294567
1.0 0.46773682153593255 -0.04606805595489344
1.0 0.583839190739108 -0.05027722503384201
1.0 0.5365422656931352 -0.039577735216621064
1.0 0.5110364738048764 -0.031396216986731035
1.0 0.47342904624125176 -0.023258077631196177
1.0 0.5396340876777087 -0.019875900388333593
1.0 0.557831940832482 -0.013694005515785144
1.0 0.49296287800669825 -0.006049868374859805
